-0.142936 -0.006305169 1.05129
-0.123154 -0.07480279 1.04893
-0.119704 -0.07633919 1.05785
-0.1337173 -0.06899874 1.020242
-0.127647 -0.07229149 1.03767
-0.104058 -0.09233029 0.9955769
-0.161831 0.0397281 0.8806789
-0.146527 0.06066879 0.8337819
-0.127981 0.08005019 0.8540979
-0.144812 0.06409529 0.8432939
-0.133188 0.07138269 0.8374899
-0.148688 0.05532289 0.8162689
-0.135538 0.06785899 0.8294119
-0.139459 0.06227959 0.8135919
-0.115447 0.09732139 0.8864509
-0.107496 0.104408 0.9044609
-0.121994 0.08909109 0.8696849
-0.05938769 0.07325659 0.8290339
-0.0102514 0.09933239 0.9093039
-0.07208979 -0.09751189 0.9837509
-0.08043429 -0.09803759 1.00552
-0.0449361 -0.106653 0.9923829
-0.0681109 -0.1023036 1.009103
-0.06147619 -0.10079 0.9877079
-0.0336828 -0.110137 0.9943259
-0.05653839 -0.09855229 0.9687929
-0.08658843 -0.09769353 1.027
-0.09689709 -0.09454529 1.02429
-0.08900259 -0.09590149 1.0018
-0.08008069 -0.09559529 0.9814779
-0.0208335 -0.116308 1.01549
-0.0493654 -0.10904 1.01249
-0.0357482 -0.113334 1.01473
-0.114462 -0.08480589 1.04121
-0.121194 -0.08155059 1.03152
-0.106058 -0.08941589 1.0474
-0.10587 -0.09146879 1.02094
-0.117805 -0.08651299 1.0079
-0.121834 -0.08640029 0.9929749
-0.112223 -0.08895089 1.01488
-0.110566 -0.09651119 0.9302299
-0.0420273 -0.07004599 0.8561689
-0.0126155 -0.008604109 0.8468489
-0.0112555 -0.003318589 0.8139448
-0.05585209 -0.07798079 0.8263739
-0.0431714 -0.06594189 0.8243009
-0.0327967 -0.05335489 0.8213089
-0.0110812 -0.00489007 0.8351619
-0.01635773 -0.07304058 0.8833236
-0.0224975 -0.07070899 0.8841809
-0.005405879 -0.008065839 0.8632059
-0.0105475 -0.007457259 0.8629909
-0.0126441 -0.007349409 0.8627129
-0.0140512 -0.009465649 0.8548449
-0.0163963 0.0302259 0.8464709
-0.0294727 0.0448368 0.8337989
-0.0471533 0.06150059 0.8249379
-0.03395979 0.04838229 0.8071278
-0.007239899 0.0263381 0.8609839
-0.0115011 0.0280253 0.8551789
-0.001619985 0.02074623 0.8679434
-0.0322534 0.0453147 0.8263399
-0.0259029 0.0493842 0.8420039
-0.0371936 0.06566459 0.8393049
-0.0442216 0.06175049 0.8302899
-0.0141824 0.0428441 0.8523379
-0.017887 0.05562529 0.8507939
-0.0273615 0.07148289 0.8494609
-0.007592719 0.0458351 0.8608569
-0.009522629 0.06224209 0.8624839
-0.0166304 0.07725089 0.8635889
-0.0196275 0.0411699 0.8458539
-0.06208119 0.07217229 0.8239649
-0.05014329 0.07743699 0.8387949
-0.0275422 0.08930179 0.8639859
-0.0386723 0.08300999 0.8496849
-0.00207388 0.09197449 0.9385399
-0.0017477 0.08162229 0.9097649
-0.007883219 0.08054109 0.8807009
-0.0175386 0.09535949 0.8839399
-0.00380605 0.06590579 0.8750509
-0.00300236 0.05013279 0.8697309
-0.00393721 0.0355692 0.8662779
-6.669519E-4 0.05027299 0.8824499
-7.696439E-4 0.06351809 0.8936979
-0.106872 0.07518509 0.8087609
-0.05042559 0.06381979 0.8067708
-0.03860789 0.05224539 0.7547158
-0.03489669 0.05140419 0.7824338
-0.05310639 0.06746349 0.7813928
-0.07103819 0.07441359 0.7808878
-0.08825928 0.07655188 0.7824798
-0.08406258 0.07687178 0.7552038
-0.08072838 0.07565528 0.7788268
-0.113357 0.07290599 0.7584398
-0.09769108 0.07646628 0.7577158
-0.106257 0.07469309 0.7845768
-0.07047289 0.07501098 0.7552678
-0.126669 0.06619159 0.7589078
-0.119653 0.07035779 0.7857908
-0.142587 0.05731969 0.7938868
-0.103314 0.07505808 0.6998789
-0.08755488 0.07713628 0.6986279
-0.116056 0.07009499 0.7012329
-0.07293889 0.07493589 0.6983529
-0.05748529 0.06693289 0.6981429
-0.05435509 0.06861169 0.7541558
-0.04520919 0.05198819 0.6981889
-0.16364 0.02854069 0.7650768
-0.157573 0.04178369 0.7915118
-0.150299 0.04973629 0.7901948
-0.174771 0.00241842 0.7686078
-0.146843 0.04513259 0.7027999
-0.127963 0.06291189 0.7021979
-0.159043 0.02519669 0.7035589
-0.167882 0.00103637 0.7038469
-0.17016 -0.04098099 0.7024489
-0.178615 -0.0178047 0.7704248
-0.171125 -0.0202424 0.7034119
-0.17769 -0.03922119 0.7700998
-0.163621 -0.07590568 0.7711368
-0.112927 -0.09669598 0.7031929
-0.153677 -0.07545988 0.7027979
-0.120193 -0.07844578 0.6295459
-0.161029 -0.03593929 0.6297169
-0.165886 -0.03879269 0.6669559
-0.162289 -0.0173286 0.6293269
-0.166573 -0.0189769 0.6670069
-0.157494 0.01704 0.6302749
-0.163687 0.0022102 0.6672759
-0.160684 0.00214097 0.6294899
-0.157605 0.004073789 0.5945308
-0.155741 0.02631229 0.6673149
-0.136242 0.05426289 0.6658129
-0.150714 0.03654309 0.6668119
-0.151097 0.02824279 0.5956568
-0.138355 0.04725889 0.5950428
-0.148097 0.03773689 0.6293559
-0.153425 0.02802189 0.6290729
-0.141594 0.04646809 0.6289779
-0.155646 -0.03251849 0.5943158
-0.151044 -0.02935029 0.5729608
-0.15388 -0.0136932 0.5685368
-0.152947 0.004302019 0.5478618
-0.154667 0.004529689 0.5666088
-0.158007 -0.0151355 0.5934768
-0.132566 0.05514829 0.6292709
-0.149224 -0.004503599 0.5298668
-0.151153 -0.0100852 0.5498758
-0.125304 0.06268759 0.6658729
-0.07493569 0.07382279 0.6620089
-0.06332229 0.06551049 0.6263439
-0.06032039 0.06591969 0.6615569
-0.09016838 0.07357409 0.6270489
-0.08848538 0.07561378 0.6621769
-0.07603028 0.07160749 0.6259149
-0.121758 0.06012118 0.5939868
-0.123392 0.06205659 0.6289119
-0.05187328 0.05494808 0.6246838
-0.04840419 0.05200379 0.6622959
-0.0173252 0.004165979 0.7542778
-0.03987269 -0.05887739 0.7987858
-0.04734199 -0.06733569 0.7936818
-0.05408099 -0.07106839 0.7626998
-0.06178879 -0.08116088 0.7977808
-0.03374939 -0.05072769 0.7894418
-0.03663989 -0.05171159 0.7587568
-0.04611429 -0.05219759 0.6991969
-0.0128421 7.312149E-4 0.7844108
-0.07660768 -0.09217198 0.8000438
-0.06754269 -0.08365758 0.7649918
-0.07975098 -0.09228438 0.7662868
-0.06509189 -0.06887649 0.6677749
-0.07470819 -0.07702858 0.6689259
-0.04687749 -0.02700819 0.5911608
-0.03389399 0.0184865 0.6631419
-0.02736149 0.0120436 0.6988599
-0.04374859 0.04093149 0.6245988
-0.04209579 -0.0110643 0.5896438
-0.04406459 6.219668E-4 0.5362328
-0.04242279 -0.002835149 0.5565618
-0.04738639 -0.01773289 0.5584788
-0.07599368 -0.05836918 0.5608828
-0.06241278 -0.05606758 0.5924918
-0.05344438 -0.03166339 0.5598348
-0.05246318 -0.03983049 0.5912848
-0.05994608 -0.02960879 0.5314198
-0.06369538 -0.04840129 0.5597468
-0.05118368 0.04538669 0.5402928
-0.06666538 0.05868348 0.5408028
-0.134092 -0.03910609 0.5248118
-0.133878 -0.04356349 0.5446118
-0.1535759 0.02356289 0.4900548
-0.128483 -0.04906139 0.5360308
-0.09195397 -0.06314548 0.5622118
-0.120494 -0.05465718 0.5380918
-0.121135 -0.04760338 0.5053918
-0.120427 -0.05306198 0.5229248
-0.128793 -0.04627039 0.5231168
-0.08954996 -0.05378668 0.5227878
-0.09146337 -0.05639258 0.5318808
-0.08966867 -0.05828508 0.5420098
-0.06638098 -0.04233789 0.5395368
-0.07638998 -0.05113398 0.5409808
-0.100965 -0.04463128 0.4837658
-0.122391 -0.04133498 0.4857798
-0.1278099 -0.04228108 0.5072238
-0.1286699 -0.03815918 0.4927518
-0.1270529 -0.02990719 0.4674728
-0.1027269 -0.02428909 0.4383708
-0.09448966 -0.03255189 0.4656078
-0.08236427 -0.02553079 0.4680308
-0.07733627 -0.03792298 0.5073258
-0.08959116 -0.04859338 0.5052658
-0.09096056 -0.04155808 0.4858098
-0.08805086 -0.01073559 0.4193388
-0.07880007 -0.04695308 0.5228418
-0.06681848 -0.03768989 0.5297398
-0.07348528 -0.04407549 0.5295108
-0.06713427 -0.03349409 0.5205158
-0.06853047 -0.02947369 0.5105198
-0.07043627 -0.02392819 0.4941268
-0.04905649 -0.013302 0.5368458
-0.05232488 -0.009610266 0.5162818
-0.05491028 -0.004973948 0.5000038
-0.1501369 0.006485067 0.4789938
-0.1469259 -0.001837319 0.4758368
-0.1362379 -0.02037399 0.4714448
-0.1421669 -0.0112773 0.4733588
-0.1331929 -0.03539259 0.5083188
-0.148708 -9.193637E-4 0.5145998
-0.1422779 -0.01414929 0.4933638
-0.1322229 -0.03342069 0.4898058
-0.1568899 0.01037819 0.4205088
-0.1332449 -0.01881569 0.4176368
-0.1436139 -0.009598825 0.4189778
-0.1345289 -0.01941469 0.4448708
-0.1430119 -0.01027299 0.4467468
-0.1211169 -0.02557299 0.4410208
-0.05900168 0.003673299 0.4710598
-0.05398158 0.004536418 0.4873508
-0.06558757 0.002621959 0.4553488
-0.06156397 0.01274699 0.4560688
-0.05603588 0.01510119 0.4723348
-0.06251497 0.03798708 0.4464218
-0.06466516 0.02330479 0.4161618
-0.08489487 0.06601648 0.5423098
-0.08085997 0.07040097 0.4697768
-0.08255907 0.06840077 0.4848048
-0.09228756 0.07563357 0.4727058
-0.07519166 0.07596346 0.4225988
-0.1189 0.06080048 0.5279478
-0.118958 0.05909828 0.5455898
-0.142165 0.04182319 0.5315588
-0.141956 0.04436789 0.5164848
-0.11902 0.06351227 0.5129148
-0.142577 0.04032769 0.5465938
-0.1445009 0.04480488 0.5029708
-0.1277209 0.06091268 0.5012588
-0.09126876 0.07912947 0.4568118
-0.121278 0.08038717 0.4588658
-0.07822336 0.07138726 0.4538808
-0.119692 0.07026147 0.4881678
-0.119515 0.07527287 0.4746418
-0.1375589 0.05740918 0.4883308
-0.1449429 0.06399797 0.4588848
-0.1332229 0.07491587 0.4593288
-0.1290849 0.06476707 0.4886068
-0.1413569 0.06016918 0.4742488
-0.1300329 0.07005637 0.4747878
-0.1265919 0.09635525 0.3981438
-0.1244409 0.09009325 0.4285098
-0.1387469 0.08381826 0.4285458
-0.1616739 0.02220139 0.4227918
-0.1530369 0.01589609 0.4806718
-0.1569199 0.02130849 0.4550708
-0.151579 0.009665257 0.5160188
-0.151756 0.02171949 0.5180108
-0.148565 0.02984189 0.5470378
-0.148708 0.03071479 0.5321658
-0.148632 0.03392909 0.5178278
-0.1524859 0.02249529 0.5013468
-0.1501839 0.03503739 0.5026008
-0.1517289 0.0113254 0.5011498
-0.1544909 0.03311839 0.4769118
-0.1460289 0.04727738 0.4898938
-0.1524349 0.03491789 0.4898498
-0.1500939 0.04780868 0.4757068
-0.1608599 0.05508557 0.4265318
-0.1536269 0.05013788 0.4581388
-0.1533019 0.07057216 0.4269348
-0.1635969 0.03585128 0.4251278
-0.1574719 0.03373109 0.4569458
-0.1634779 0.02062859 0.3891858
-0.1435369 0.08889276 0.3978078
-0.1589499 0.07404416 0.3962208
-0.1665699 0.05575787 0.3943108
-0.1671259 0.03692688 0.3926998
-0.1677949 0.03131078 0.3585078
-0.1690859 0.04620957 0.3606658
-0.1690069 0.03968838 0.3548038
-0.1679899 0.06043446 0.3647238
-0.1609279 0.07673615 0.3665328
-0.1596289 0.008315894 0.3569698
-0.1554659 0.007112834 0.2865407
-0.1587379 0.007027584 0.3234507
-0.1633689 0.01682129 0.3246017
-0.1640259 0.01803289 0.3584958
-0.1688189 0.05250996 0.3311368
-0.1690249 0.04113457 0.3288668
-0.1282139 0.09904824 0.3657138
-0.1435289 0.09295004 0.3675938
-0.1658969 0.06631905 0.3345098
-0.1412199 0.09375303 0.3351358
-0.1253859 0.09859303 0.3326898
-0.1597899 0.06537764 0.2951977
-0.1503583 0.08027076 0.3047816
-0.1579539 0.08028544 0.3357868
-0.1361499 0.08890812 0.3002107
-0.1457609 -0.009580933 0.3556358
-0.1437939 -0.007748742 0.2862797
-0.1439989 -0.01004909 0.3864398
-0.1350139 -0.01776159 0.3551288
-0.1353569 -0.01591609 0.3220997
-0.1459049 -0.008932483 0.3229417
-0.1331249 -0.01873259 0.3855058
-0.1221389 -0.02209869 0.3848428
-0.1232309 -0.02051549 0.3545748
-0.1218579 -0.02290689 0.4157668
-0.08485043 0.001611799 0.3529337
-0.07681615 0.006916616 0.3850618
-0.07563104 0.01111419 0.3526947
-0.08003603 0.009365622 0.3181057
-0.1015779 -0.007436352 0.2867527
-0.09799993 -0.009885653 0.3529778
-0.09586344 -0.01125109 0.3857648
-0.1001569 -0.008935682 0.3206367
-0.1230569 -0.01558998 0.2868047
-0.1243809 -0.01810559 0.3219807
-0.08715732 0.002201298 0.3183527
-0.06426787 0.05843917 0.4195118
-0.06183066 0.03589838 0.4169537
-0.06606575 0.02033659 0.3856427
-0.06669947 0.05643237 0.4489648
-0.05938496 0.03884418 0.3866908
-0.06043156 0.06587745 0.3576567
-0.06663855 0.02126178 0.3527017
-0.06692254 0.02475238 0.3190937
-0.06411864 0.06691204 0.3231807
-0.07294756 0.08124405 0.3922528
-0.07275105 0.08460634 0.3588687
-0.06171246 0.06290706 0.3892218
-0.07411463 0.01590729 0.3178547
-0.06770353 0.03114347 0.2871237
-0.07366662 0.02173098 0.2858657
-0.0879198 0.004647955 0.2869677
-0.06997641 0.03714415 0.2624887
-0.06514203 0.04610205 0.2872697
-0.05978345 0.04360756 0.3203907
-0.05754835 0.04140987 0.3533187
-0.07130972 0.06620933 0.2892187
-0.07523499 0.02743486 0.2495796
-0.08947626 0.08600086 0.4261128
-0.08767995 0.09158625 0.3948498
-0.08765214 0.09448253 0.3607997
-0.09035023 0.09365623 0.3280057
-0.1336319 0.08487792 0.2830227
-0.1081069 0.08735411 0.2790817
-0.1107839 0.09161082 0.2965477
-0.1036829 0.09785582 0.3294297
-0.09115561 0.08642441 0.2959897
-0.1007199 0.08981302 0.2956187
-0.07694514 0.08478823 0.3263477
-0.08176122 0.07980652 0.2941417
-0.0746798 0.06207672 0.2617227
-0.09063298 0.0762194 0.2526907
-0.0860298 0.07625351 0.2686697
-0.0986493 0.08539391 0.2800087
-0.09146451 0.08370142 0.2848927
-0.09300184 0.07029388 0.2146986
-0.1061589 0.0823534 0.2528207
-0.1290019 0.08019861 0.2536247
-0.1409688 0.07372662 0.2539977
-0.1470009 0.07807023 0.2866437
-0.1221978 0.07107266 0.1811247
-0.1484827 0.02715375 0.1724877
-0.1650979 0.04590256 0.2908157
-0.1673129 0.02925888 0.3267918
-0.1643609 0.03006517 0.2894447
-0.1603969 0.01784278 0.2875137
-0.1567528 0.02044468 0.2496167
-0.1597508 0.03478106 0.2504357
-0.1580528 0.04774845 0.2514717
-0.1512838 0.04821663 0.2173807
-0.1529338 0.02371367 0.2158367
-0.1481117 0.04201383 0.1833627
-0.1536168 0.03805705 0.2163757
-0.13066 -0.002704 0.130713
-0.1306147 -0.003718961 0.1514496
-0.1462798 0.0063954 0.2158807
-0.1326017 -0.003650303 0.1807856
-0.1228408 -0.01106058 0.2158317
-0.1375738 -0.004231564 0.2163787
-0.1419998 -0.005800313 0.2571117
-0.1515328 0.007815481 0.2505577
-0.1102059 -0.01775089 0.3538968
-0.1113689 -0.01583319 0.3216417
-0.1119379 -0.01341929 0.2867487
-0.1338388 -0.01070799 0.2506647
-0.1240208 -0.01302148 0.2504457
-0.1121169 -0.01118169 0.2505327
-0.1022039 -0.005381782 0.2500256
-0.1011318 -0.003253994 0.2149006
-0.08677618 0.009307237 0.2497287
-0.08700823 0.01199388 0.2149816
-0.1119928 -0.009448074 0.2162266
-0.1021888 -0.004036031 0.1808096
-0.1020087 -0.005100805 0.1525165
-0.101998 -0.006414 0.133994
-0.1118238 -0.00905422 0.1814816
-0.1123167 -0.009873982 0.1515396
-0.111618 -0.010522 0.132993
-0.110717 -0.016213 0.107724
-0.08769436 0.01493786 0.1688305
-0.08388559 0.02553904 0.1783086
-0.07936051 0.01401008 0.2863287
-0.07955829 0.01879697 0.2495847
-0.08169204 0.02136446 0.2157246
-0.07844125 0.03106024 0.2145786
-0.08227849 0.03496121 0.1791496
-0.119631 -0.100039 -0.007751
-0.082356 0.011973 0.033527
-0.119615 -0.14034 0.023162
-0.149422 -0.103622 0.033282
-0.100696 -0.042815 0.024236
-0.102014 -0.097226 0.00327
-0.176038 -0.100299 0.01053
-0.147609 -0.146808 0.015398
-0.12831 -0.020072 0.092269
-0.082848 0.029554 0.072985
-0.141332 0.05013 0.042123
-0.136288 0.053038 0.007121
-0.083879 0.04296 0.006701
-0.127667 -0.146541 7.05E-4
-0.119305 -0.052342 0.007006
-0.10519 -0.008762 0.007852
-0.181467 -0.060104 -1.33E-4
-0.097037 -0.046951 0.039759
-0.155111 0.010568 0.034185
-0.158166 0.002989 0.010285
-0.124458 -0.072139 0.055676
-0.169135 -0.076242 -0.007584
-0.110506 -0.032688 0.082258
-0.149032 0.042326 0.079078
-0.210445 0.0575738 1.50808
-0.186547 0.0638712 1.50947
-0.211855 0.0686846 1.50421
-0.187813 0.0767906 1.50385
-0.25047 0.0508916 1.4994
-0.214514 0.0863555 1.49049
-0.246895 0.068946 1.49473
-0.24267 0.06557 1.49686
-0.386513 -0.00402516 1.43044
-0.405335 -0.00893378 1.44076
-0.386162 -0.00847395 1.43907
-0.387142 0.00242494 1.42336
-0.40574 -0.00749935 1.43325
-0.405986 -0.00462893 1.4274
-0.394153 0.0148014 1.41378
-0.389968 0.00871531 1.41808
-0.383777 0.0242676 1.41178
-0.4081281 0.06745506 1.429098
-0.42642 0.0394943 1.40786
-0.433289 0.0601241 1.42471
-0.4496425 -1.276838E-4 1.405795
-0.45365 0.0220772 1.40291
-0.440555 0.0369535 1.40711
-0.442706 0.0455447 1.41246
-0.428424 0.0480001 1.41216
-0.430387 0.0538672 1.4168
-0.445127 0.0523461 1.4192
-0.447495 0.0580849 1.42852
-0.462079 0.0480374 1.42309
-0.459865 0.0411151 1.41365
-0.456739 0.0316819 1.40606
-0.472369 0.015006 1.4024
-0.475303 0.0260465 1.40657
-0.478265 0.0356648 1.41561
-0.50253 0.0347026 1.44492
-0.477151 0.0367538 1.4653
-0.496268 0.0235347 1.47289
-0.491486 0.0118587 1.48271
-0.483705 -0.0151168 1.40678
-0.4945 0.00664703 1.40359
-0.55914 -0.0574919 1.42532
-0.551988 -0.0657712 1.44994
-0.575855 -0.0300779 1.41695
-0.562527 -0.0518994 1.41984
-0.582326 -0.016132 1.42941
-0.579491 -0.0224403 1.42174
-0.606301 -0.035522 1.42779
-0.603194 -0.041749 1.42315
-0.580444 -0.0773358 1.44728
-0.598739 -0.0502523 1.42082
-0.588769 -0.0657322 1.42578
-0.581424 -0.0759111 1.43951
-0.555082 -0.064344 1.43636
-0.584697 -0.070657 1.43057
-0.583304 -0.0738179 1.43468
-0.576967 -0.0230361 1.47367
-0.584628 -0.0106931 1.44835
-0.60267 -0.041671 1.47248
-0.586789 -0.0685222 1.46933
-0.598279 -0.0491971 1.47452
-0.572207 -0.0304217 1.47713
-0.611212 -0.02792 1.45173
-0.608725 -0.030598 1.43498
-0.69025 -0.166894 1.430294
-0.7063 -0.096048 1.464595
-0.665486 -0.164022 1.42174
-0.641977 -0.11111 1.458996
-0.668347 -0.133672 1.418616
-0.6904 -0.104619 1.470665
-0.709239 -0.130899 1.473387
-0.694916 -0.138574 1.473956
-0.713137 -0.190441 1.417725
-0.709148 -0.072419 1.436997
-0.673254 -0.156107 1.421247
-0.705449 -0.187324 1.403102
-0.717059 -0.087337 1.424403
-0.701622 -0.116928 1.441301
-0.665916 -0.104585 1.423435
-0.67515 -0.090513 1.421448
-0.694016 -0.152675 1.45175
-0.690124 -0.070016 1.424598
-0.672323 -0.066798 1.45815
-0.681879 -0.108585 1.43149
-0.683682 -0.135378 1.426647
-0.700461 -0.140625 1.442224
-0.70745 -0.078595 1.453166
-0.640396 -0.101712 1.435485
-0.636529 -0.108459 1.445065
-0.644622 -0.132767 1.438939
-0.674482 -0.062049 1.445632
-0.664369 -0.064706 1.43134
-0.638264 -0.11252 1.451276
-0.651348 -0.096967 1.427362
-0.642131 -0.095098 1.432076
-0.657391 -0.083932 1.470244
-0.662385 -0.074513 1.467219
-0.633628 -0.076004 1.42791
-0.636396 -0.070011 1.42716
-0.645554 -0.053092 1.4352
-0.642582 -0.057379 1.43121
-0.631264 -0.090664 1.433784
-0.629621 -0.097644 1.439439
-0.627069 -0.100364 1.445645
-0.627534 -0.101351 1.452817
-0.629965 -0.100993 1.458383
-0.633649 -0.097187 1.464343
-0.646225 -0.081055 1.470317
-0.649054 -0.072019 1.469283
-0.661392 -0.05601 1.45037
-0.660801 -0.055916 1.44475
-0.658673 -0.056746 1.43849
-0.654201 -0.05978 1.43306
-0.650138 -0.065831 1.42941
-0.742275 -0.126298 1.443671
-0.615128 -0.084539 1.4661
-0.608849 -0.090298 1.44584
-0.610314 -0.087394 1.43853
-0.612797 -0.083226 1.43383
-0.630676 -0.062416 1.426533
-0.635103 -0.044077 1.44071
-0.63277 -0.053537 1.46797
-0.014732 -0.007260899 0.8603549
-0.0526453 0.0678217 1.55474
-0.0721018 0.065988 1.53086
-0.0842072 0.055746 1.52122
-0.0555904 0.0582687 1.55353
-0.0410817 0.0832265 1.55428
-0.0475715 0.0764997 1.55523
-0.0713005 0.0477005 1.52443
-0.0720945 0.0567194 1.52807
-0.056627 0.0364226 1.54598
-0.0549386 0.025749 1.54078
-0.0797984 0.0359922 1.51241
-0.0687075 0.0377825 1.5205
-0.09389623 0.04274337 1.512336
-0.0757085 0.02565507 1.506986
-0.0621974 0.01828636 1.511506
-0.0291872 -0.0113695 1.51522
-0.0369149 -0.00686383 1.51462
-0.014956 -0.0155736 1.51419
-0.00860246 -0.0161612 1.51134
-0.27025 0.0128256 1.42553
-0.269914 0.00410003 1.4325
-0.269899 0.0230503 1.41896
-0.294788 -7.54631E-5 1.43264
-0.295661 0.0213121 1.41839
-0.269563 0.0308853 1.41439
-0.271452 0.0485764 1.40779
-0.275108 0.0660894 1.40829
-0.321259 0.0170145 1.41894
-0.318126 -0.00341883 1.43411
-0.319774 0.00718665 1.4244
-0.295246 0.0103692 1.4245
-0.27798 0.0759059 1.41222
-0.302684 0.0817842 1.42064
-0.30182 0.0731642 1.41315
-0.298097 0.0452113 1.40835
-0.296485 0.0272321 1.41484
-0.299974 0.061919 1.40888
-0.323344 0.0411695 1.40941
-0.323856 0.0483964 1.4089
-0.324792 0.0593316 1.41036
-0.325414 0.0695105 1.41448
-0.326346 0.0776091 1.42138
-0.286061 0.0788252 1.48113
-0.291745 0.0077349 1.47704
-0.308055 0.0821017 1.47252
-0.325536 0.079485 1.46954
-0.311637 0.0845257 1.46635
-0.326716 0.0841643 1.45612
-0.303288 0.0702298 1.48484
-0.289518 0.0859714 1.47281
-0.305741 0.0775526 1.47875
-0.292923 0.089481 1.46544
-0.299475 0.0905685 1.45831
-0.308272 0.0890528 1.45031
-0.307829 0.0883388 1.45668
-0.328257 0.0847363 1.43995
-0.327594 0.0830894 1.43182
-0.327511 0.0850575 1.44878
-0.243036 0.0235085 1.42196
-0.242999 0.0288811 1.41806
-0.242634 0.0367794 1.41351
-0.244542 0.0139527 1.42858
-0.245452 0.00821392 1.4336
-0.244042 0.0530852 1.40789
-0.252448 0.0697872 1.40873
-0.25712 0.078705 1.41276
-0.258036 0.0947582 1.45897
-0.00960435 -0.0233584 1.55609
-0.05017555 -0.04494834 1.752216
-0.0371844 0.0742351 1.58741
-0.0597384 0.0164179 1.7654
-0.0668429 0.0675259 1.73688
-0.0499177 0.014217 1.77486
-0.0488829 0.0785833 1.7562
-0.0621053 0.0809095 1.72787
-0.0488297 0.0915078 1.73895
-0.0604157 -0.00232149 1.76111
-0.05008339 -0.006883342 1.771402
-0.041149 -0.0760461 1.69209
-0.0387045 -0.054961 1.75606
-0.01449875 -0.09312138 1.640696
-0.02497884 -0.07464431 1.610218
-0.003468673 -0.09147998 1.603124
-0.0712374 0.0222572 1.63725
-0.06692466 0.01208317 1.630712
-0.0752371 0.0139125 1.67726
-0.07379159 0.01046907 1.665332
-0.06984336 0.0273138 1.640139
-0.0322449 0.0787579 1.60312
-0.0521642 0.0749688 1.64228
-0.0478841 0.0989549 1.72159
-0.063968 0.0832967 1.70466
-0.0481416 0.0594858 1.76997
-0.0594097 0.0569347 1.75929
-0.0680733 0.0534039 1.74649
-0.0480072 0.0369279 1.77599
-0.0589376 0.0367094 1.76596
-0.0727799 0.0500584 1.73724
-0.0715419 0.0193638 1.7448
-0.0274288 -0.0215062 1.56998
-0.01567166 -0.07145864 1.56816
-0.004744733 -0.09084338 1.635219
-0.07533141 0.03806322 1.67598
-0.0750471 0.0122616 1.66928
-0.0718504 0.0658507 1.707
-0.0707848 0.0656315 1.72449
-0.07176536 0.03355237 1.64769
-0.07486606 0.03911061 1.666418
-0.0599788 -0.0200115 1.75479
-0.01023722 -0.08273514 1.594903
-0.01444038 -0.08746837 1.607693
-0.07064352 -0.02349857 1.673035
-0.0428244 0.0690477 1.60264
-0.0269173 0.0963212 1.64316
-0.0452813 0.0648875 1.58657
-0.0501425 0.058734 1.6026
-0.0556145 0.028291 1.56936
-0.0557784 0.0430346 1.58491
-0.0516778 0.0535085 1.58582
-0.0557721 0.0486631 1.60334
-0.0497485 0.0130407 1.57495
-0.04925128 -0.05904307 1.7334
-0.006919779 -0.07917383 1.735355
-0.02620316 -0.06250009 1.75732
-0.02578615 -0.07453357 1.736371
-0.0600466 0.086047 1.6806
-0.0465093 0.100753 1.6834
-0.0338569 0.0999581 1.74338
-0.0338543 0.08363 1.76443
-0.0329433 0.0618932 1.77872
-0.035984 0.00935451 1.78242
-0.0305629 0.111 1.68592
-0.0320177 0.109406 1.72006
-0.0332208 0.0354931 1.78459
-0.0175326 0.0866498 1.76889
-0.0182931 0.0625988 1.78385
-0.0171425 0.0353375 1.79009
-0.0144648 0.00667953 1.78938
-0.0171551 0.105054 1.74565
-0.014239 0.116715 1.68753
-0.0167917 0.114561 1.72065
-0.0606837 -0.00129674 1.60749
-0.05538397 -0.0128981 1.59428
-0.04932928 -0.005261506 1.589274
-0.06539306 -0.003584948 1.621187
-0.06245986 -0.02865929 1.613036
-0.06067599 -0.02081838 1.602812
-0.06670037 -0.04292656 1.655448
-0.01490947 -0.04214734 1.566932
-0.01330777 -0.02645648 1.562346
-0.0471994 0.00815189 1.57821
-0.0542015 -0.030571 1.59361
-0.0471977 -0.0265349 1.58519
-0.0379295 -0.0225132 1.57863
-0.06193833 -0.05254685 1.645948
-0.05847119 -0.05423458 1.675935
-0.05896662 -0.05881923 1.656511
-0.0477273 -0.0722354 1.69239
-0.04407045 -0.07556788 1.699732
-0.0341427 -0.0780771 1.69184
-0.02693047 -0.08174685 1.69548
-0.009370683 -0.08099771 1.686765
-0.01351884 -0.07496632 1.682423
-0.005079714 -0.08554862 1.675298
-0.03705089 -0.0738451 1.656527
-0.02414414 -0.03131143 1.569894
-0.01155135 -0.03259853 1.564957
-0.04477118 -0.04212285 1.585176
-0.036053 -0.04180958 1.576676
-0.05681865 -0.03723514 1.602642
-0.04871298 -0.05602042 1.607363
-0.0595963 -0.04260688 1.61994
-0.04590603 -0.05012545 1.592702
-0.005335936 -0.07749848 1.56845
-0.02268806 -0.06133505 1.569509
-0.03257423 -0.06240522 1.58163
-0.01111199 -0.08273303 1.577702
-0.02313835 -0.07178727 1.57655
-0.01068216 -0.06259018 1.565524
-0.04116391 -0.07138011 1.621748
-0.02797728 -0.07117296 1.592518
-0.02634456 -0.08019452 1.626479
-0.004639406 -0.1079419 1.643348
-0.0434421 -0.0677985 1.667085
-0.01420828 -0.07259409 1.672057
-0.01768534 -0.08239483 1.637153
-0.0422333 0.00362519 1.55617
-0.0487168 0.0119208 1.55272
-0.0552878 0.0289141 1.55233
-0.418659 0.0463484 1.41111
-0.420719 0.0531681 1.41526
-0.421614 0.0596067 1.41982
-0.553863 -0.0657254 1.44221
-0.55684 -0.0617337 1.43089
-0.0477634 -0.09147849 0.9315959
-0.0167404 -0.101957 0.9365669
-0.0259597 -0.09927259 0.9347919
-0.0357725 -0.09582129 0.9332119
-0.0282691 -0.103837 0.9545019
-0.01771756 -0.1062428 0.9556376
-0.03891623 -0.1005316 0.9535561
-0.0491316 -0.101111 0.9712439
-0.07937989 -0.09356069 0.9571909
-0.07151879 -0.09431169 0.9615339
-0.06422969 -0.09628389 0.9653239
-0.08181099 -0.09170869 0.9293639
-0.09579079 -0.09525199 0.9297109
-0.101332 -0.09438699 0.9536069
-0.11376 -0.09369549 0.9532149
-0.106947 -0.09296859 0.9735599
-0.08838062 -0.09430818 0.9781898
-0.08655439 -0.09360209 0.9541629
-0.109729 -0.09918749 0.9028659
-0.07629339 -0.09032489 0.9098739
-0.09008599 -0.09540209 0.9100809
-0.0486827 -0.08274269 0.9119959
-0.0147746 -0.09515829 0.9145369
-0.0227281 -0.09245369 0.9135319
-0.0315505 -0.08894629 0.9127509
-0.0408678 -0.08483509 0.9118029
-0.07610679 -0.102974 1.04772
-0.09079919 -0.09670639 1.04778
-0.155762 -0.0447936 0.9778399
-0.150628 -0.05908269 0.9777839
-0.144854 -0.06986359 0.9765129
-0.1427 -0.0415386 1.02791
-0.149234 -0.0379974 1.007
-0.138279 -0.05749579 1.02396
-0.145841 -0.05187889 1.00374
-0.162874 -0.038554 0.9562379
-0.152928 -0.06619719 0.9567839
-0.180757 -0.0373363 0.8002709
-0.156403 -0.08773389 0.8023039
-0.166777 -0.07453089 0.8015019
-0.0298148 -0.05415119 0.8484309
-0.0274839 -0.05359209 0.8650099
-0.0254988 -0.05367449 0.8719079
-0.0227692 -0.05488399 0.8757849
-0.01950509 -0.05717137 0.8762029
-0.0107053 -0.05902269 0.8736499
-0.06190389 -0.08448959 0.8590459
-0.07736289 -0.09326029 0.8597989
-0.06977069 -0.08839249 0.8281219
-0.08491749 -0.09647139 0.8306769
-0.166651 0.0338757 0.8222549
-0.157928 -0.08675459 0.8331549
-0.181983 -0.0361771 0.8325109
-0.168334 -0.07229559 0.8337959
-0.173595 0.0202115 0.8261299
-0.179559 0.00282347 0.8291929
-0.183175 -0.0163396 0.8308089
-0.180672 -0.0364143 0.8590849
-0.179534 0.00285988 0.8547539
-0.182344 -0.0163968 0.8578949
-0.09102299 -0.09863739 0.8604549
-0.09814709 -0.09896099 0.8889819
-0.08414039 -0.09469229 0.8878239
-0.135371 -0.09734429 0.8915549
-0.031114 -0.06552229 0.8807499
-0.0273759 -0.06766069 0.8843979
-0.0357416 -0.06525719 0.8743639
-0.046443 -0.07586379 0.8919789
-0.0400951 -0.07451549 0.8943539
-0.05594179 -0.08166639 0.8865849
-0.06806919 -0.08953829 0.9326419
-0.05666209 -0.08397269 0.9114079
-0.06977089 -0.08863999 0.8874089
-0.05789419 -0.08917519 0.9313349
-0.06519379 -0.08641279 0.9100499
-0.07328539 -0.08978769 0.9274579
-0.16502 0.0376972 0.8596969
-0.177566 -0.0362983 0.8853439
-0.177552 0.00288411 0.8766289
-0.179817 -0.0178338 0.8819979
-0.172159 0.0206311 0.8687899
-0.167111 -0.0458324 0.9336169
-0.175324 -0.05710709 0.8010189
-0.175313 -0.05520979 0.8605699
-0.176816 -0.05509879 0.8327989
-0.171648 -0.05595099 0.8878189
-0.160017 -0.06259199 0.9345339
-0.166663 -0.05822409 0.9120959
-0.168989 0.0210701 0.8899519
-0.174027 0.00288195 0.8979329
-0.170029 -0.032144 0.9309719
-0.158689 -0.05403449 0.9568449
-0.09948054 -0.05980732 0.5444685
-0.09942307 -0.05656058 0.5229118
-0.09909776 -0.05110858 0.5031828
-0.112577 -0.05871738 0.5486278
-0.110225 -0.05830968 0.5385478
-0.111088 -0.05669958 0.5241068
-0.111217 -0.05141728 0.5039028
-0.172819 -0.05779929 0.7711318
-0.164236 -0.05878719 0.7025009
-0.139153 -0.04618569 0.5660698
-0.136501 -0.04476779 0.5561968
-0.152692 -0.05482989 0.6297099
-0.158549 -0.05813779 0.6677139
-0.147582 -0.04922349 0.5962108
-0.14369 -0.03192159 0.5517638
-0.173455 0.0208402 0.8492609
-0.166534 0.0355772 0.8435059
-0.171593 0.01929 0.7957598
-0.1775 0.0028285 0.7970059
-0.181469 -0.0168702 0.7993489
-0.05618368 -0.02756879 0.5390938
-0.05878928 -0.02338939 0.5222168
-0.05791129 -0.06004239 0.6587189
-0.05370449 -0.04945489 0.6282729
-0.05227999 -0.05414859 0.6649169
-0.04638279 -0.03764889 0.6276218
-0.04257889 -0.04032159 0.6654419
-0.04083879 -0.02413309 0.6263008
-0.09009515 -0.01812529 0.4392018
-0.09423434 -0.01482439 0.4152158
-0.07214171 -4.307494E-4 0.4402158
-0.08006966 -0.009804635 0.4388898
-0.06678947 0.009728625 0.4415648
-0.06284777 0.02669149 0.4442198
-0.03497029 0.03167359 0.6995669
-0.03996049 0.03466789 0.6617279
-0.03940579 0.02707579 0.6247428
-0.04268099 0.03581029 0.5896688
-0.04788699 0.04312799 0.5577108
-0.05464258 0.04665758 0.5244048
-0.05647158 0.04664798 0.5093058
-0.05793878 0.04385188 0.4927058
-0.06012698 0.04185148 0.4790968
-0.06162837 0.03848578 0.4632298
-0.06495437 0.05280428 0.4938998
-0.06656267 0.05252088 0.4809768
-0.04064369 0.0114514 0.5556498
-0.04232819 0.0141426 0.5374528
-0.04759338 0.01840129 0.5043608
-0.04492778 0.01588969 0.5196838
-0.05159288 0.01790629 0.4879068
-0.05020128 0.005088668 0.5018078
-0.04712548 0.003304109 0.5175748
-0.03914749 0.005961738 0.5888958
-0.03680639 -0.004845389 0.6264878
-0.03407319 -0.03327879 0.6992259
-0.03432899 -0.0209474 0.6640399
-0.05393368 0.05235198 0.5589638
-0.04812379 0.04742569 0.5907608
-0.05793298 0.05857618 0.5912558
-0.06351468 0.05914608 0.5595538
-0.06875647 0.05883858 0.5249678
-0.06951457 0.05789788 0.5089428
-0.06978897 0.05723408 0.4943928
-0.07322972 0.0604932 0.484035
-0.09273696 0.06829787 0.5099548
-0.09252982 0.07023857 0.4961068
-0.06849688 0.06573628 0.5920658
-0.07401888 0.06493948 0.5613928
-0.08024578 0.06943878 0.5922088
-0.06415497 0.05402638 0.5089988
-0.059966 0.05346172 0.5319755
-0.06783817 0.05609738 0.4677098
-0.07633869 0.07919269 0.8283029
-0.08018259 0.07757889 0.8224649
-0.033616 0.09681539 1.01205
-0.0273015 0.104987 0.9903509
-0.0230724 0.110721 0.9657499
-0.0223247 0.112919 0.9382869
-0.0258627 0.111249 0.9100079
-0.0435728 0.100718 0.8663679
-0.05553159 0.09303059 0.8507039
-0.0327843 0.106388 0.8848879
-0.06513499 0.08512499 0.8389189
-0.09352679 0.08057689 0.8289539
-0.09797779 0.07838259 0.8230819
-0.0493386 0.09823189 1.01285
-0.06008169 0.08818129 1.0329
-0.0424882 0.107294 0.9920479
-0.038456 0.11427 0.9676719
-0.0391278 0.117676 0.9406709
-0.0431606 0.116899 0.9119149
-0.05120229 0.112601 0.8874019
-0.06177469 0.10646 0.8693189
-0.07293989 0.09785909 0.8532159
-0.08338549 0.08858879 0.8406089
-0.07761989 0.06525549 1.07307
-0.07793169 0.06983599 1.06325
-0.07216279 0.07733989 1.05184
-0.07337169 0.07486569 0.8052278
-0.09292548 0.07670768 0.8065538
-0.111335 0.0297109 1.15351
-0.117916 0.0182636 1.15348
-0.114369 0.0297831 1.16611
-0.120761 0.017212 1.16602
-0.09141627 0.07007128 0.5919968
-0.09324267 0.06825348 0.5625318
-0.164936 0.03213759 0.7940208
-0.159041 0.0444589 0.8202509
-0.157742 0.0487704 0.8384169
-0.156331 0.05194399 0.8515569
-0.136267 -0.0266224 1.07265
-0.13857 -0.0269394 1.06253
-0.09392929 0.06689089 1.20207
-0.07832529 0.07990929 1.21645
-0.127257 0.0181145 1.19481
-0.101129 0.06817689 1.21685
-0.08613429 0.08144279 1.22814
-0.132869 -0.06020629 1.04178
-0.12998 -0.06045429 1.05432
-0.1341584 -0.04376767 1.064316
-0.137778 -0.0440087 1.04663
-0.131006 -0.05941939 1.31549
-0.127897 -0.06758509 1.32237
-0.1242281 -0.06721422 1.30786
-0.121505 -0.07718974 1.32824
-0.1333978 -0.05206739 1.311072
-0.133117 -0.06285559 1.32859
-0.140452 -0.0483998 1.33358
-0.137332 -0.05954959 1.33842
-0.1288345 -0.07185477 1.338666
-0.116342 -0.07528609 1.30356
-0.1125932 -0.08121235 1.312534
-0.1084404 -0.08750301 1.324005
-0.1034129 -0.0922196 1.332292
-0.107471 -0.08280319 1.30052
-0.09133269 -0.09473299 1.30954
-0.09908049 -0.09034369 1.30885
-0.09816548 -0.08915416 1.2973
-0.07645087 -0.0996257 1.295572
-0.08588433 -0.09847838 1.316087
-0.07375646 -0.1021164 1.311228
-0.08639314 -0.09968599 1.325541
-0.06057179 -0.105654 1.31277
-0.07334463 -0.103838 1.325445
-0.05414539 -0.106534 1.33566
-0.05975739 -0.106375 1.32701
-0.06875041 -0.1048351 1.336196
-0.07607352 -0.100892 1.353464
-0.0248392 -0.09297669 1.38631
-0.07963327 -0.1024685 1.338543
-0.09041855 -0.09730267 1.352416
-0.141124 -0.06049769 1.36151
-0.130795 -0.07164359 1.35674
-0.1218496 -0.07973276 1.34925
-0.152243 -0.0304983 1.3601
-0.106959 -0.07316979 1.40177
-0.129372 -0.06722689 1.39455
-0.144411 -0.05688199 1.38312
-0.159198 -0.0333988 1.38555
-0.150679 -0.0484971 1.37198
-0.159267 -0.0246386 1.37897
-0.151874 -0.0406945 1.36536
-0.151053 -0.0197524 1.35556
-0.0653455 -0.0778915 1.4111
-0.0853642 -0.0698792 1.4168
-0.105507 -0.0648078 1.41742
-0.01836957 -0.03684265 1.468382
-0.0527548 0.0201734 1.55031
-0.0130292 -0.0158324 1.51799
-0.159451 0.0387581 1.33359
-0.128352 0.09994829 1.3158
-0.143851 0.08508799 1.31249
-0.157934 0.0361771 1.32022
-0.131957 0.102287 1.32635
-0.149067 0.08678219 1.32595
-0.100522 0.125213 1.35302
-0.09401774 0.1166705 1.318228
-0.046988 0.00451869 1.58197
-0.0182826 -0.0199131 1.55954
-0.033449 -0.00562649 1.56071
-0.036891 -0.00987103 1.57553
-0.02940945 -0.01352587 1.566258
-0.0287261 -0.0304227 1.47853
-0.0187526 -0.0296656 1.4755
-0.008057621 -0.04022996 1.459562
-0.007111135 -0.03407063 1.464789
-0.005074663 -0.02223436 1.4765
-0.0229001 -0.0247668 1.4821
-0.0260165 -0.0200737 1.48947
-0.166978 -0.0194861 1.39505
-0.164896 -0.0105214 1.39003
-0.1714519 0.003562122 1.401672
-0.198764 0.0277083 1.41454
-0.196982 0.0355304 1.41033
-0.168172 0.0371061 1.38811
-0.160098 0.0332715 1.37098
-0.1792621 0.03553234 1.403789
-0.158927 0.0134417 1.38018
-0.154032 0.005045609 1.36627
-0.16625 0.0220121 1.39527
-0.179722 0.0238264 1.40944
-0.1519153 0.009574176 1.346587
-0.153966 0.0163138 1.3622
-0.158514 0.0232651 1.3759
-0.166037 0.0290569 1.39232
-0.181462 0.0148152 1.41272
-0.200294 0.0148814 1.42231
-0.0101505 0.130707 1.36932
-0.0287219 0.134225 1.36673
-0.04861 0.135963 1.36364
-0.0342503 0.09682059 1.23862
-0.0452301 0.09842309 1.24454
-0.0111907 0.09309229 1.23285
-0.112289 0.122771 1.35766
-0.114569 0.118843 1.34747
-0.115431 0.115406 1.33786
-0.0417405 0.09015569 1.22076
-0.009385249 0.08780649 1.21692
-0.09083919 0.09873329 1.27228
-0.05490809 0.09069259 1.22772
-0.111884 0.1123257 1.324904
-0.0200644 0.09461679 1.23409
-0.07114719 0.09399299 1.24546
-0.06308989 0.09232539 1.23692
-0.05453815 0.1004882 1.252897
-0.05001519 0.109046 1.27337
-0.0427771 0.112705 1.28127
-0.0213885 0.105272 1.26422
-0.03392562 0.1139996 1.284349
-0.009674379 0.109177 1.27877
-0.04832364 -0.0686416 1.657274
-0.07424906 -0.001579963 1.700416
-0.0707972 -0.001811699 1.650471
-0.06120171 0.01040123 1.613695
-0.0555922 0.006547821 1.599965
-0.0474257 6.59213E-4 1.58637
-0.05430133 0.01218305 1.594893
-0.06580515 0.02436156 1.630812
-0.0292279 0.0836232 1.6182
-0.040989 0.0746219 1.61792
-0.05342984 0.02046752 1.57493
-0.06516973 0.03241024 1.628762
-0.0545926 0.0181233 1.59048
-0.06024347 0.02938411 1.606498
-0.0281772 0.0889448 1.63019
-0.04027352 0.08166018 1.632002
-0.0502674 0.06501327 1.621743
-0.05784885 0.05393648 1.621604
-0.00958823 0.0858229 1.60271
-0.0124483 0.0846973 1.58787
-0.00583454 0.09510742 1.633129
-0.0218988 0.0835391 1.60278
-0.0271611 0.0810058 1.58768
-0.0158294 0.08867531 1.618997
-0.01438707 0.09637653 1.637158
-0.0450373 0.0982873 1.66905
-0.0579861 0.0839939 1.66704
-0.0297431 0.10819 1.67018
-0.0136063 0.113619 1.67123
-0.06450424 0.06592467 1.65746
-0.07204718 0.05241923 1.669638
-0.07602336 0.04877636 1.704588
-0.0427578 0.093025 1.65389
-0.0547594 0.0796186 1.65297
-0.0281684 0.102654 1.65483
-0.06830852 0.05045354 1.651437
-0.0121095 0.106916 1.65505
-0.0595121 0.0383343 1.60438
-0.0574009 0.0331496 1.58517
-0.06230487 0.04352564 1.623304
-0.02359569 -0.08039393 1.611223
-0.009162555 -0.04435583 1.776861
-0.009272226 -0.01210288 1.788419
-0.08094199 0.06157299 1.17005
-0.05227609 0.07272769 1.17352
-0.0652542 0.06441706 1.159132
-0.0129344 -0.11814 1.10598
-0.1525219 -3.455748E-4 0.3885218
-0.1507959 -1.988069E-4 0.4204948
-0.1539609 -5.570796E-4 0.3553918
-0.1510678 9.075451E-5 0.2863947
-0.1537269 -7.153224E-4 0.3232457
-0.1465738 2.350537E-4 0.2505237
-0.1490449 -3.540639E-4 0.4494458
-0.131205 0.107697 1.48649
-0.112266 0.114453 1.48421
-0.148825 0.100524 1.48995
-0.18922 0.0864815 1.49727
-0.212711 0.0776557 1.49863
-0.248083 0.0593753 1.49819
-0.25788 0.0613614 1.49398
-0.0945707 0.122921 1.47796
-0.382156 0.0562336 1.41452
-0.382985 0.0407693 1.41038
-0.479409 0.0434067 1.45118
-0.407632 0.0695283 1.44346
-0.407257 0.069578 1.4349
-0.458839 0.0552119 1.44202
-0.434284 0.0636676 1.43375
-0.447934 0.0598288 1.43485
-0.4176601 0.06766226 1.437609
-0.4176008 0.06648587 1.446257
-0.4258807 0.06568984 1.433767
-0.471384 0.0215123 1.48196
-0.46641 0.00942742 1.48748
-0.404974 4.91539E-4 1.47673
-0.404628 -0.00343846 1.47059
-0.387445 0.00293037 1.4754
-0.408056 0.00528555 1.48161
-0.637649 -0.091087 1.468134
-0.590734 -0.0620824 1.47278
-0.618642 -0.078986 1.46939
-0.650234 -0.098852 1.468645
-0.643679 -0.086365 1.46992
-0.622607 -0.07293 1.47139
-0.170687 -0.0131607 0.9268259
-0.169607 -0.0224652 0.9332459
-0.148166 -0.044495 1.42009
-0.127718 -0.0531747 1.42587
-0.102416 -0.0569188 1.42921
-0.0829831 -0.0599471 1.43094
-0.169718 -0.0252691 1.43151
-0.159748 -0.0342034 1.42322
-0.151671 -0.0341132 1.43776
-0.159803 -0.0289367 1.43866
-0.150895 -0.00380229 1.35155
-0.03878934 -0.1091404 1.313214
-0.0166137 -0.107931 1.32409
-0.0430448 -0.0702152 1.42558
-0.0636225 -0.0612287 1.43429
-0.0412894 -0.08613479 1.39979
-0.0636357 -0.06964202 1.423517
-0.0442472 -0.0767028 1.41649
-0.007715217 -0.08502875 1.400222
-0.02473137 -0.08751279 1.397995
-0.008412549 -0.09693049 1.37513
-0.0229271 -0.09734139 1.37604
-0.05040899 -0.105651 1.34462
-0.0366933 -0.10613 1.34321
-0.0222736 -0.105802 1.34054
-0.06534559 -0.1033058 1.351298
-0.007195483 -0.1026057 1.35312
-0.0208328 -0.103502 1.35497
-0.05012639 -0.103862 1.35457
-0.0355592 -0.103745 1.35565
-0.0368664 -0.100022 1.36906
-0.0219632 -0.100528 1.36613
-0.05237539 -0.100802 1.36441
-0.07202515 -0.09803707 1.366667
-0.0295815 -0.0540949 1.44731
-0.0265125 -0.0653845 1.4315
-0.04298203 -0.05973256 1.440098
-0.0433835 -0.0436218 1.46201
-0.01706387 -0.05046416 1.449997
-0.01096241 -0.05022315 1.448761
-0.05769036 -0.02982983 1.475139
-0.06476153 -0.04747265 1.451291
-0.0500516 0.0116186 1.53268
-0.0441555 -0.00133569 1.51412
-0.0591402 0.00990134 1.5061
-0.0549971 -0.00455 1.4949
-0.06720678 0.002259533 1.494839
-0.06456947 0.007171826 1.499243
-0.0308294 -0.0142048 1.4999
-0.0234279 -0.016418 1.49949
-0.00860465 -0.0172771 1.49683
-0.0593394 0.0281935 1.52699
-0.0381827 -0.0102967 1.50051
-0.04221889 -0.01226869 1.493785
-0.062375 0.0484139 1.53617
-0.0611926 0.0379142 1.53142
-0.0509633 0.00498909 1.51245
-0.0625359 0.0569903 1.5392
-0.0583282 0.0755311 1.54219
-0.0612702 0.066749 1.54139
-0.0557662 0.0160326 1.52092
-0.007907859 -0.02819426 1.47059
-0.0214255 -0.0142515 1.51555
-0.028055 -0.0095757 1.53496
-0.008662146 -0.01911152 1.486997
-0.01470015 -0.02305627 1.481474
-0.0160746 -0.0174 1.49851
-0.0212271 -0.013289 1.53528
-0.0144193 -0.015666 1.53316
-0.00778696 -0.017592 1.53068
-0.0383492 -5.17144E-4 1.55822
-0.0425454 0.00194327 1.53334
-0.0359869 -0.00411661 1.53519
-0.0561966 0.0385904 1.56665
-0.0544395 0.0490067 1.56857
-0.045532 0.0701272 1.56919
-0.0506807 0.0603553 1.56844
-0.0387962 0.0781085 1.56905
-0.0301296 0.0838761 1.5678
-0.00854849 -0.0214178 1.54976
-0.0174311 -0.0173866 1.55158
-0.02634521 -0.01156344 1.557878
-0.09262087 0.06719668 0.5254968
-0.09392157 0.06712008 0.5437968
-0.08410817 0.06511748 0.5255748
-0.08300777 0.06461657 0.5092598
-0.08398307 0.06666097 0.4967388
-0.07567358 0.06221478 0.5256698
-0.07556987 0.06149668 0.5089568
-0.07478907 0.06134598 0.4956678
-0.07614588 0.06351758 0.5423558
-0.126987 0.05393008 0.5460238
-0.128024 0.05385498 0.5647968
-0.126611 0.05558578 0.5284568
-0.119289 0.06662507 0.4994038
-0.129981 0.05472478 0.5950308
-0.145421 0.03855449 0.5959078
-0.1360609 0.05401098 0.5012248
-0.134983 0.04793919 0.5458968
-0.133534 0.04997299 0.5298158
-0.1286077 0.05675195 0.5145922
-0.136157 0.04747949 0.5657868
-0.07330119 -0.08095848 0.7020299
-0.3246182 0.0826229 1.46306
-0.324739 0.0758494 1.47507
-0.421485 -0.00969962 1.42717
-0.407427 0.0549045 1.41557
-0.3945702 0.04983963 1.412325
-0.131478 0.0308801 1.22201
-0.108168 0.07000349 1.23047
-0.1189231 0.07452661 1.255249
-0.09970769 0.08566779 1.25225
-0.09354749 0.08363999 1.24087
-0.06541449 0.113468 1.291
-0.05662789 0.110882 1.28038
-0.07333239 0.105023 1.27387
-0.06663899 0.103715 1.26672
-0.0845716 0.09654355 1.261813
-0.134825 0.0173368 1.22244
-0.139466 0.0179956 1.2385
-0.142955 0.0187992 1.25094
-0.154347 0.0196668 1.32547
-0.15624 0.0296634 1.35617
-0.153609 0.0175543 1.31079
-0.154636 0.0235759 1.34032
-0.165854 0.0449395 1.36514
-0.185831 0.07134539 1.39157
-0.199398 0.0659285 1.40317
-0.299036 0.0510599 1.40786
-0.27273 0.0539369 1.40712
-0.246134 0.0591229 1.40745
-0.417781 0.0627981 1.42427
-0.406818 0.0601427 1.41955
-0.39457 0.0582341 1.41635
-0.406906 0.064205 1.42367
-0.3938806 0.06285957 1.420118
-0.394284 0.0679309 1.42605
-0.472372 -0.021837 1.48207
-0.58128 -0.0763097 1.45543
-0.583348 -0.0734973 1.46322
-0.552039 -0.063562 1.45929
-0.553948 -0.0595533 1.46808
-0.60959 -0.090384 1.45339
-0.611456 -0.088815 1.45985
-0.46916 0.0162358 1.48502
-0.367423 0.0777703 1.43969
-0.3768091 0.0696616 1.424292
-0.367106 0.0639485 1.41738
-0.366187 0.0382963 1.41047
-0.367445 0.0555543 1.41316
-0.366404 0.0464072 1.41082
-0.382002 0.0733461 1.43183
-0.364021 0.0104802 1.41966
-0.365065 0.0186857 1.41528
-0.362449 -0.00824238 1.43681
-0.363185 5.02554E-4 1.42658
-0.363831 0.00641765 1.47841
-0.364392 0.0163515 1.48408
-0.364192 0.0452964 1.4862
-0.320559 0.0618507 1.4865
-0.323054 0.0695676 1.48146
-0.16063 0.0559859 1.5107
-0.158252 0.0403377 1.5103
-0.15741 0.0281087 1.50785
-0.158608 -0.00141774 1.48593
-0.156427 0.00758757 1.49568
-0.156557 0.0173816 1.50334
-0.233597 0.0768506 1.49301
-0.231741 0.0624601 1.50199
-0.232709 0.0695476 1.49852
-0.270996 0.0858934 1.47603
-0.274937 0.0913293 1.4659
-0.162106 0.0705839 1.50736
-0.164352 0.0837281 1.50118
-0.169795 0.101458 1.48464
-0.166492 0.0937828 1.49359
-0.281506 0.0680518 1.48778
-0.380668 0.0256924 1.48625
-0.362078 0.0321396 1.48722
-0.0559164 0.113998 1.50522
-0.043247 0.117526 1.50012
-0.0714327 0.0917143 1.52377
-0.0282613 0.105823 1.52215
-0.0383848 0.102744 1.52503
-0.0700701 0.0744426 1.53248
-0.0237217 0.114776 1.50496
-0.08745414 0.09485254 1.515081
-0.0547465 0.0820665 1.54167
-0.0779505 0.0839819 1.52527
-0.065898 0.0828793 1.53255
-0.09843493 0.08591134 1.516036
-0.0484464 0.0886378 1.54033
-0.0347655 0.088264 1.55212
-0.0599273 0.0896975 1.53169
-0.0902959 0.105602 1.50499
-0.0648444 0.120022 1.49464
-0.0358611 0.126052 1.48326
-0.0515563 0.12397 1.48913
-0.0429702 0.0930618 1.53832
-0.0293834 0.0923263 1.5475
-0.0537989 0.0946687 1.53013
-0.0653701 0.0975523 1.52161
-0.0769035 0.101404 1.51396
-0.0783789 0.114133 1.49914
-0.0465339 0.0994811 1.52734
-0.0571639 0.103214 1.51854
-0.0686666 0.108054 1.51001
-0.0644888 0.133562 1.46531
-0.039702 0.131183 1.47182
-0.0237107 0.0877458 1.56218
-0.0182686 0.0910528 1.55453
-0.03598155 0.09682612 1.535963
-0.00833652 0.0906534 1.55857
0.0 0.08702196 1.574914
-0.00667636 0.0959245 1.54524
-0.01436106 0.1084033 1.519234
-0.003240281 0.1022762 1.532487
-0.0151758 0.10156 1.53265
-0.02453202 0.09716918 1.539382
-0.087784 0.041511 0.132256
-0.08694993 0.04596226 0.1502725
-0.0826208 0.04606959 0.1798516
-0.07733765 0.04549601 0.2139546
-0.0715067 0.04591554 0.2493777
-0.06995001 0.04804084 0.2616837
-0.086909 0.05681607 0.1796346
-0.08241995 0.05927619 0.2142526
-0.07730349 0.06295161 0.2500556
-0.094435 0.062812 0.149604
-0.095274 0.062125 0.102399
-0.09413519 0.06507976 0.1804396
-0.082637 0.063748 0.022797
-0.1336967 0.05777677 0.1506137
-0.1394487 0.05900139 0.1832127
-0.1511408 0.06243643 0.2536857
-0.1452488 0.06040222 0.2183827
-0.1273757 0.06422955 0.1508777
-0.125905 0.062318 0.130345
-0.1314668 0.06653678 0.1825087
-0.1356588 0.0700751 0.2171757
-0.0014332 0.03675913 0.8737938
-0.0141305 0.0147853 0.8422619
-0.0114332 0.0142824 0.8509719
-0.02535349 0.02761949 0.7542868
-0.0211426 0.02632029 0.7832578
-0.011 0.012571 0.8571139
-0.006424599 0.0108097 0.8631759
-0.0040922 0.009356479 0.8648559
-0.008644959 0.0114392 0.8610819
-0.0179174 0.0221146 0.8095848
-0.0153138 0.016092 0.8317849
-0.29469 0.0394914 1.48995
-0.317504 0.0428478 1.48959
-0.365187 0.0247654 1.48632
-0.316119 0.0344612 1.48901
-0.364582 0.0361437 1.48744
-0.31954 0.0530862 1.48909
-0.261984 0.0686763 1.49078
-0.123768 0.0178028 1.18056
-0.1182696 0.03067623 1.180851
-0.08437789 0.06561439 1.18556
-0.05307789 0.08226479 1.20315
-0.009518933 0.08217629 1.197744
-0.06933519 0.07932139 1.20664
-0.008673609 -0.118996 1.03382
-0.007710559 -0.114483 0.9952179
-0.008289239 -0.117391 1.01597
-0.00730629 -0.1075074 0.9553323
-0.007245559 -0.08688799 0.8965169
-0.006504069 -0.07554919 0.8835759
-0.007561889 -0.103274 0.9374259
-0.007122929 -0.09663449 0.9152929
-0.130381 -0.003503 0.116586
-0.111534 -0.012019 0.118876
-0.1232747 -0.008793867 0.1511066
-0.122141 -0.009168 0.131525
-0.1223447 -0.00944871 0.1817596
-0.122485 -0.009985 0.118226
-0.136444 0.005089 0.129977
-0.1379047 0.005340817 0.1508806
-0.1400287 0.004840391 0.1807157
-0.135854 0.004273 0.115572
-0.05789079 -0.06608409 0.7002059
-0.1489669 0.002397059 0.4976358
-0.14698 -0.01934449 0.5447778
-0.146153 -0.0132123 0.5291108
-0.143432 -0.01369414 0.5112775
-0.1386979 -0.03001983 0.5265272
-0.1374509 -0.02778309 0.5089698
-0.1373209 -0.02491169 0.4920078
-0.1410141 -0.03151979 0.5408665
-0.05909288 -0.005521978 0.4868578
-0.07210297 -0.01923639 0.4770918
-0.06072828 -0.02096569 0.5124218
-0.06270097 -0.01601279 0.4974968
-0.06575184 -0.007754395 0.4701591
-0.08162229 -0.09750159 1.2818
-0.13483 -0.0436978 1.2942
-0.1351507 -0.03423396 1.246827
-0.1449824 -0.009477641 1.289092
-0.131305 -0.046483 1.25641
-0.09723119 -0.08755759 1.21223
-0.108547 -0.07995339 1.23303
-0.142386 -0.007868689 1.25608
-0.12404 -0.0400193 1.15096
-0.123011 -0.05587299 1.09961
-0.140503 -0.0273693 1.29932
-0.1397639 -0.03469283 1.313491
-0.14273 -0.0227425 1.31046
-0.145447 -0.010444 1.30483
-0.1394036 -0.02026886 1.253633
-0.06295294 -0.103895 1.294385
-0.103876 -0.08433179 1.24319
-0.109633 -0.07905459 1.25378
-0.114941 -0.07291299 1.26166
-0.1231832 -0.06243443 1.27377
-0.05828089 -0.107316 1.12652
-0.09217929 -0.08775069 1.15792
-0.110309 -0.07554649 1.19331
-0.119275 -0.06659609 1.21644
-0.123317 -0.06152229 1.22967
-0.126579 -0.05534439 1.24176
-0.133874 -0.0412631 1.2676
-0.123913 -0.0017332 1.14967
-0.05535659 -0.106138 1.16449
-0.127642 -0.019327 1.16402
-0.09940969 -0.08352619 1.16999
-0.07833359 -0.09760959 1.20324
-0.1391625 -0.01256427 1.239927
-0.139054 -0.0303057 1.29068
-0.1392006 -0.02580595 1.269126
-0.1446973 -0.007883695 1.277962
-0.144745 -0.00458753 1.27017
-0.1361171 -0.02653138 1.234847
-0.134445 -0.019997 1.21431
-0.07542289 -0.09730039 1.17793
-0.127096 -0.05328269 1.22458
-0.124269 -0.05765819 1.21136
-0.117007 -0.06737399 1.18705
-0.129802 -0.0476334 1.23743
-0.129323 -0.05222249 1.27272
-0.118959 -0.06824789 1.23614
-0.114132 -0.07380529 1.22408
-0.102798 -0.08278289 1.20258
-0.09023269 -0.08975799 1.17787
-0.08293929 -0.09319929 1.16574
-0.131847 -0.0479209 1.28379
-0.12626 -0.0246873 1.15182
-0.125474 -0.0101605 1.15245
-0.1242438 -0.06024259 1.253924
-0.1148075 -0.07337771 1.243732
-0.08300019 -0.09451459 1.19038
-0.106111 -0.08230789 1.26566
-0.09980829 -0.08777729 1.25725
-0.06337569 -0.106603 1.03004
-0.05308809 -0.110532 1.03135
-0.0379586 -0.115332 1.03314
-0.04869791 -0.1076833 1.29929
-0.0378859 -0.112114 1.25423
-0.0410724 -0.111568 1.16188
-0.0414252 -0.114249 1.12478
-0.0873486 -0.09503976 1.296396
-0.1275338 -0.0600356 1.300154
-0.134545 -0.0481813 1.3074
-0.145115 -0.0169925 1.32307
-0.14359 0.005478959 1.25275
-0.140892 0.006164789 1.2402
-0.136418 0.005579179 1.22283
-0.133507 0.0047431 1.21045
-0.125862 0.00177291 1.16616
-0.128088 0.00285217 1.18092
-0.148549 1.51253E-5 1.31682
-0.130821 0.00395099 1.19646
-0.137121 -0.005788759 1.22473
-0.134714 -0.007233509 1.21239
-0.148215 0.005648969 1.28096
-0.0408203 -0.112961 1.14321
-0.0235639 -0.117388 1.14056
-0.009150309 -0.118469 1.13899
-0.05750839 -0.106037 1.14681
-0.0485137 -0.109559 1.23162
-0.06839939 -0.1035021 1.232491
